342355.6	7520623.5	356.072
342365.6	7520623.5	356.689
342375.6	7520623.5	356.560
342385.6	7520623.5	356.118
342395.6	7520623.5	356.545
342405.6	7520623.5	357.446
342415.6	7520623.5	357.924
342425.6	7520623.5	358.114
342435.6	7520623.5	359.867
342445.6	7520623.5	361.599
342455.6	7520623.5	360.805
342465.6	7520623.5	363.088
342475.6	7520623.5	364.283
342485.6	7520623.5	361.834
342495.6	7520623.5	362.007
342505.6	7520623.5	361.789
342515.6	7520623.5	362.763
342525.6	7520623.5	365.358
342535.6	7520623.5	365.568
342545.6	7520623.5	364.461
342555.6	7520623.5	365.130
342565.6	7520623.5	364.745
342575.6	7520623.5	367.299
342585.6	7520623.5	370.987
342595.6	7520623.5	374.976
342605.6	7520623.5	373.459
342615.6	7520623.5	373.904
342625.6	7520623.5	373.171
342005.6	7520613.5	356.034
342015.6	7520613.5	357.713
342025.6	7520613.5	352.947
342035.6	7520613.5	352.830
342045.6	7520613.5	352.659
342055.6	7520613.5	352.221
342065.6	7520613.5	354.336
342075.6	7520613.5	355.212
342085.6	7520613.5	352.122
342095.6	7520613.5	351.574
342105.6	7520613.5	353.261
342115.6	7520613.5	356.994
342125.6	7520613.5	359.029
342135.6	7520613.5	359.229
342145.6	7520613.5	359.828
342155.6	7520613.5	360.875
342165.6	7520613.5	361.010
342175.6	7520613.5	360.678
342185.6	7520613.5	361.388
342195.6	7520613.5	362.063
342205.6	7520613.5	361.823
342215.6	7520613.5	362.355
342225.6	7520613.5	361.422
342235.6	7520613.5	359.035
342245.6	7520613.5	359.269
342255.6	7520613.5	358.722
342265.6	7520613.5	358.757
342275.6	7520613.5	357.067
342285.6	7520613.5	357.727
342295.6	7520613.5	357.456
342305.6	7520613.5	357.781
342315.6	7520613.5	357.116
342325.6	7520613.5	357.038
342335.6	7520613.5	356.982
342345.6	7520613.5	357.268
342355.6	7520613.5	356.391
342365.6	7520613.5	356.687
342375.6	7520613.5	356.661
342385.6	7520613.5	356.281
342395.6	7520613.5	356.837
342405.6	7520613.5	358.930
342415.6	7520613.5	359.085
342425.6	7520613.5	356.834
342435.6	7520613.5	357.567
342445.6	7520613.5	359.432
342455.6	7520613.5	360.916
342465.6	7520613.5	361.710
342475.6	7520613.5	362.241
342485.6	7520613.5	360.770
342495.6	7520613.5	361.858
342505.6	7520613.5	362.895
342515.6	7520613.5	363.355
342525.6	7520613.5	364.645
342535.6	7520613.5	364.286
342545.6	7520613.5	364.535
342555.6	7520613.5	365.817
342565.6	7520613.5	365.634
342575.6	7520613.5	367.191
342585.6	7520613.5	368.260
342595.6	7520613.5	372.335
342605.6	7520613.5	372.825
342615.6	7520613.5	372.731
342625.6	7520613.5	372.960
342635.6	7520613.5	372.988
342645.6	7520613.5	372.781
342655.6	7520613.5	372.912
342665.6	7520613.5	375.542
341965.6	7520603.5	353.353
341975.6	7520603.5	353.295
341985.6	7520603.5	353.132
341995.6	7520603.5	353.050
342005.6	7520603.5	354.201
342015.6	7520603.5	355.334
342025.6	7520603.5	352.683
342035.6	7520603.5	352.597
342045.6	7520603.5	352.354
342055.6	7520603.5	351.980
342065.6	7520603.5	355.614
342075.6	7520603.5	356.780
342085.6	7520603.5	352.294
342095.6	7520603.5	351.080
342105.6	7520603.5	350.845
342115.6	7520603.5	352.546
342125.6	7520603.5	356.998
342135.6	7520603.5	359.130
342145.6	7520603.5	359.164
342155.6	7520603.5	359.273
342165.6	7520603.5	359.234
342175.6	7520603.5	359.292
342185.6	7520603.5	359.457
342195.6	7520603.5	359.961
342205.6	7520603.5	361.108
342215.6	7520603.5	361.286
342225.6	7520603.5	360.297
342235.6	7520603.5	357.903
342245.6	7520603.5	357.857
342255.6	7520603.5	358.219
342265.6	7520603.5	357.640
342275.6	7520603.5	358.253
342285.6	7520603.5	357.798
342295.6	7520603.5	357.844
342305.6	7520603.5	356.356
342315.6	7520603.5	355.188
342325.6	7520603.5	356.012
342335.6	7520603.5	356.616
342345.6	7520603.5	356.479
342355.6	7520603.5	354.922
342365.6	7520603.5	354.451
342375.6	7520603.5	355.584
342385.6	7520603.5	356.591
342395.6	7520603.5	357.579
342405.6	7520603.5	359.239
342415.6	7520603.5	359.940
342425.6	7520603.5	359.731
342435.6	7520603.5	359.956
342445.6	7520603.5	360.035
342455.6	7520603.5	361.610
342465.6	7520603.5	360.875
342475.6	7520603.5	360.881
342485.6	7520603.5	362.670
342495.6	7520603.5	363.458
342505.6	7520603.5	362.745
342515.6	7520603.5	364.275
342525.6	7520603.5	364.543
342535.6	7520603.5	365.927
342545.6	7520603.5	365.269
342555.6	7520603.5	365.143
342565.6	7520603.5	365.628
342575.6	7520603.5	368.579
342585.6	7520603.5	369.012
342595.6	7520603.5	371.906
342605.6	7520603.5	371.423
342615.6	7520603.5	370.493
342625.6	7520603.5	371.820
342635.6	7520603.5	373.099
342645.6	7520603.5	372.521
342655.6	7520603.5	371.842
342665.6	7520603.5	373.409
342675.6	7520603.5	375.881
342685.6	7520603.5	376.615
342695.6	7520603.5	375.105
342705.6	7520603.5	374.086
342715.6	7520603.5	376.830
342725.6	7520603.5	375.820
341955.6	7520593.5	353.333
341965.6	7520593.5	352.788
341975.6	7520593.5	352.762
341985.6	7520593.5	352.647
341995.6	7520593.5	352.500
342005.6	7520593.5	352.437
342015.6	7520593.5	352.387
342025.6	7520593.5	352.291
342035.6	7520593.5	352.332
342045.6	7520593.5	352.128
342055.6	7520593.5	351.779
342065.6	7520593.5	353.242
342075.6	7520593.5	353.512
342085.6	7520593.5	351.303
342095.6	7520593.5	350.458
342105.6	7520593.5	350.292
342115.6	7520593.5	350.491
342125.6	7520593.5	353.570
342135.6	7520593.5	357.730
342145.6	7520593.5	359.474
342155.6	7520593.5	358.296
342165.6	7520593.5	357.893
342175.6	7520593.5	359.097
342185.6	7520593.5	359.051
342195.6	7520593.5	359.326
342205.6	7520593.5	360.670
342215.6	7520593.5	360.625
342225.6	7520593.5	359.657
342235.6	7520593.5	357.716
342245.6	7520593.5	356.926
342255.6	7520593.5	357.967
342265.6	7520593.5	358.440
342275.6	7520593.5	359.176
342285.6	7520593.5	359.010
342295.6	7520593.5	356.963
342305.6	7520593.5	355.004
342315.6	7520593.5	353.801
342325.6	7520593.5	355.290
342335.6	7520593.5	355.993
342345.6	7520593.5	356.241
342355.6	7520593.5	356.252
342365.6	7520593.5	356.735
342375.6	7520593.5	356.924
342385.6	7520593.5	357.332
342395.6	7520593.5	358.895
342405.6	7520593.5	359.994
342415.6	7520593.5	360.358
342425.6	7520593.5	361.328
342435.6	7520593.5	361.531
342445.6	7520593.5	360.853
342455.6	7520593.5	361.411
342465.6	7520593.5	361.771
342475.6	7520593.5	362.371
342485.6	7520593.5	364.610
342495.6	7520593.5	364.524
342505.6	7520593.5	364.681
342515.6	7520593.5	365.308
342525.6	7520593.5	365.339
342535.6	7520593.5	367.259
342545.6	7520593.5	366.509
342555.6	7520593.5	366.737
342565.6	7520593.5	365.992
342575.6	7520593.5	369.384
342585.6	7520593.5	370.351
342595.6	7520593.5	371.136
342605.6	7520593.5	370.193
342615.6	7520593.5	369.836
342625.6	7520593.5	370.656
342635.6	7520593.5	372.818
342645.6	7520593.5	374.838
342655.6	7520593.5	374.229
342665.6	7520593.5	372.912
342675.6	7520593.5	374.668
342685.6	7520593.5	376.698
342695.6	7520593.5	374.868
342705.6	7520593.5	376.147
342715.6	7520593.5	377.875
342725.6	7520593.5	380.575
342735.6	7520593.5	378.078
342745.6	7520593.5	380.472
342755.6	7520593.5	379.058
342765.6	7520593.5	378.121
341945.6	7520583.5	353.699
341955.6	7520583.5	353.062
341965.6	7520583.5	352.450
341975.6	7520583.5	352.317
341985.6	7520583.5	352.222
341995.6	7520583.5	352.134
342005.6	7520583.5	352.021
342015.6	7520583.5	351.910
342025.6	7520583.5	351.988
342035.6	7520583.5	352.086
342045.6	7520583.5	351.878
342055.6	7520583.5	351.548
342065.6	7520583.5	351.242
342075.6	7520583.5	350.976
342085.6	7520583.5	350.564
342095.6	7520583.5	350.279
342105.6	7520583.5	350.062
342115.6	7520583.5	349.943
342125.6	7520583.5	350.564
342135.6	7520583.5	354.036
342145.6	7520583.5	357.574
342155.6	7520583.5	357.488
342165.6	7520583.5	357.095
342175.6	7520583.5	358.637
342185.6	7520583.5	359.540
342195.6	7520583.5	360.086
342205.6	7520583.5	360.411
342215.6	7520583.5	360.245
342225.6	7520583.5	359.593
342235.6	7520583.5	358.192
342245.6	7520583.5	357.388
342255.6	7520583.5	358.068
342265.6	7520583.5	358.625
342275.6	7520583.5	357.994
342285.6	7520583.5	357.977
342295.6	7520583.5	355.424
342305.6	7520583.5	354.717
342315.6	7520583.5	354.751
342325.6	7520583.5	355.319
342335.6	7520583.5	356.042
342345.6	7520583.5	356.830
342355.6	7520583.5	358.318
342365.6	7520583.5	358.998
342375.6	7520583.5	357.939
342385.6	7520583.5	357.055
342395.6	7520583.5	358.219
342405.6	7520583.5	359.510
342415.6	7520583.5	359.887
342425.6	7520583.5	360.292
342435.6	7520583.5	360.200
342445.6	7520583.5	360.639
342455.6	7520583.5	362.427
342465.6	7520583.5	364.306
342475.6	7520583.5	363.855
342485.6	7520583.5	365.074
342495.6	7520583.5	363.078
342505.6	7520583.5	365.525
342515.6	7520583.5	365.397
342525.6	7520583.5	366.024
342535.6	7520583.5	365.946
342545.6	7520583.5	366.090
342555.6	7520583.5	367.590
342565.6	7520583.5	366.280
342575.6	7520583.5	368.129
342585.6	7520583.5	369.709
342595.6	7520583.5	369.483
342605.6	7520583.5	369.433
342615.6	7520583.5	369.578
342625.6	7520583.5	370.034
342635.6	7520583.5	372.099
342645.6	7520583.5	374.791
342655.6	7520583.5	376.181
342665.6	7520583.5	375.099
342675.6	7520583.5	375.006
342685.6	7520583.5	377.712
342695.6	7520583.5	376.881
342705.6	7520583.5	378.674
342715.6	7520583.5	376.722
342725.6	7520583.5	382.135
342735.6	7520583.5	379.313
342745.6	7520583.5	379.824
342755.6	7520583.5	379.670
342765.6	7520583.5	378.434
342775.6	7520583.5	378.347
342785.6	7520583.5	379.825
342795.6	7520583.5	378.533
342805.6	7520583.5	377.562
342815.6	7520583.5	380.493
342825.6	7520583.5	381.302
341935.6	7520573.5	353.220
341945.6	7520573.5	353.225
341955.6	7520573.5	353.097
341965.6	7520573.5	353.169
341975.6	7520573.5	352.023
341985.6	7520573.5	351.778
341995.6	7520573.5	351.737
342005.6	7520573.5	351.580
342015.6	7520573.5	351.527
342025.6	7520573.5	351.736
342035.6	7520573.5	351.819
342045.6	7520573.5	351.586
342055.6	7520573.5	351.298
342065.6	7520573.5	350.984
342075.6	7520573.5	350.713
342085.6	7520573.5	350.394
342095.6	7520573.5	350.103
342105.6	7520573.5	349.836
342115.6	7520573.5	349.679
342125.6	7520573.5	349.597
342135.6	7520573.5	350.772
342145.6	7520573.5	352.256
342225.6	7520573.5	358.476
342235.6	7520573.5	358.591
342245.6	7520573.5	357.645
342255.6	7520573.5	359.294
342265.6	7520573.5	357.755
342275.6	7520573.5	357.793
342285.6	7520573.5	357.307
342295.6	7520573.5	354.676
342305.6	7520573.5	355.222
342315.6	7520573.5	355.634
342325.6	7520573.5	355.579
342335.6	7520573.5	356.542
342345.6	7520573.5	356.833
342355.6	7520573.5	358.136
342365.6	7520573.5	357.621
342375.6	7520573.5	357.323
342385.6	7520573.5	356.978
342395.6	7520573.5	357.049
342405.6	7520573.5	357.816
342415.6	7520573.5	358.499
342425.6	7520573.5	359.066
342435.6	7520573.5	358.944
342445.6	7520573.5	360.081
342455.6	7520573.5	363.168
342465.6	7520573.5	365.108
342475.6	7520573.5	363.431
342485.6	7520573.5	366.961
342495.6	7520573.5	361.821
342505.6	7520573.5	363.941
342515.6	7520573.5	364.837
342525.6	7520573.5	367.857
342535.6	7520573.5	366.852
342545.6	7520573.5	365.030
342555.6	7520573.5	366.742
342565.6	7520573.5	368.216
342575.6	7520573.5	368.292
342585.6	7520573.5	369.139
342595.6	7520573.5	369.426
342605.6	7520573.5	369.599
342615.6	7520573.5	370.220
342625.6	7520573.5	371.456
342635.6	7520573.5	371.929
342645.6	7520573.5	371.769
342655.6	7520573.5	374.593
342665.6	7520573.5	376.793
342675.6	7520573.5	375.271
342685.6	7520573.5	376.818
342695.6	7520573.5	378.714
342705.6	7520573.5	380.169
342715.6	7520573.5	377.818
342725.6	7520573.5	378.525
342735.6	7520573.5	378.264
342745.6	7520573.5	376.761
342755.6	7520573.5	377.552
342765.6	7520573.5	378.924
342775.6	7520573.5	378.562
342785.6	7520573.5	378.602
342795.6	7520573.5	378.382
342805.6	7520573.5	378.364
342815.6	7520573.5	380.813
342825.6	7520573.5	380.216
342835.6	7520573.5	380.917
342845.6	7520573.5	382.505
342855.6	7520573.5	382.713
342865.6	7520573.5	382.630
342875.6	7520573.5	383.078
341935.6	7520563.5	352.513
341945.6	7520563.5	352.377
341955.6	7520563.5	352.648
341965.6	7520563.5	352.945
341975.6	7520563.5	351.633
341985.6	7520563.5	351.372
341995.6	7520563.5	351.322
342005.6	7520563.5	351.083
342015.6	7520563.5	351.053
342025.6	7520563.5	351.358
342035.6	7520563.5	351.504
342045.6	7520563.5	351.288
342055.6	7520563.5	351.005
342065.6	7520563.5	350.687
342075.6	7520563.5	350.431
342085.6	7520563.5	350.123
342095.6	7520563.5	349.850
342105.6	7520563.5	349.592
342115.6	7520563.5	349.448
342125.6	7520563.5	349.364
342135.6	7520563.5	349.395
342295.6	7520563.5	355.222
342305.6	7520563.5	355.551
342315.6	7520563.5	355.154
342325.6	7520563.5	355.632
342335.6	7520563.5	356.661
342345.6	7520563.5	356.867
342355.6	7520563.5	357.786
342365.6	7520563.5	356.879
342375.6	7520563.5	357.423
342385.6	7520563.5	358.059
342395.6	7520563.5	357.918
342405.6	7520563.5	357.817
342415.6	7520563.5	358.011
342425.6	7520563.5	358.852
342435.6	7520563.5	359.228
342445.6	7520563.5	359.975
342455.6	7520563.5	361.903
342465.6	7520563.5	363.966
342475.6	7520563.5	363.166
342485.6	7520563.5	366.508
342495.6	7520563.5	362.983
342505.6	7520563.5	362.995
342515.6	7520563.5	364.272
342525.6	7520563.5	367.200
342535.6	7520563.5	369.312
342545.6	7520563.5	366.662
342555.6	7520563.5	366.438
342565.6	7520563.5	370.121
342575.6	7520563.5	370.136
342585.6	7520563.5	368.974
342595.6	7520563.5	368.865
342605.6	7520563.5	369.509
342615.6	7520563.5	371.195
342625.6	7520563.5	372.908
342635.6	7520563.5	372.507
342645.6	7520563.5	371.019
342655.6	7520563.5	372.668
342665.6	7520563.5	375.945
342675.6	7520563.5	376.368
342685.6	7520563.5	375.942
342695.6	7520563.5	376.553
342705.6	7520563.5	379.036
342715.6	7520563.5	378.680
342725.6	7520563.5	376.546
342735.6	7520563.5	377.476
342745.6	7520563.5	377.419
342755.6	7520563.5	376.308
342765.6	7520563.5	379.433
342775.6	7520563.5	378.389
342785.6	7520563.5	378.506
342795.6	7520563.5	381.220
342805.6	7520563.5	380.715
342815.6	7520563.5	381.209
342825.6	7520563.5	381.167
342835.6	7520563.5	381.333
342845.6	7520563.5	382.220
342855.6	7520563.5	382.933
342865.6	7520563.5	382.804
342875.6	7520563.5	383.301
342885.6	7520563.5	384.159
342895.6	7520563.5	384.928
342905.6	7520563.5	385.662
341935.6	7520553.5	351.768
341945.6	7520553.5	351.493
341955.6	7520553.5	351.552
341965.6	7520553.5	351.331
341975.6	7520553.5	351.069
341985.6	7520553.5	350.977
341995.6	7520553.5	350.917
342005.6	7520553.5	350.622
342015.6	7520553.5	350.559
342025.6	7520553.5	350.919
342035.6	7520553.5	351.138
342045.6	7520553.5	350.952
342055.6	7520553.5	350.658
342065.6	7520553.5	350.368
342075.6	7520553.5	350.147
342085.6	7520553.5	349.809
342095.6	7520553.5	349.556
342105.6	7520553.5	349.345
342115.6	7520553.5	350.117
342125.6	7520553.5	349.693
342135.6	7520553.5	349.202
342345.6	7520553.5	356.205
342355.6	7520553.5	357.592
342365.6	7520553.5	357.130
342375.6	7520553.5	357.818
342385.6	7520553.5	358.743
342395.6	7520553.5	358.711
342405.6	7520553.5	358.571
342415.6	7520553.5	359.013
342425.6	7520553.5	359.977
342435.6	7520553.5	360.510
342445.6	7520553.5	361.242
342455.6	7520553.5	362.070
342465.6	7520553.5	363.522
342475.6	7520553.5	363.235
342485.6	7520553.5	364.380
342495.6	7520553.5	365.706
342505.6	7520553.5	363.349
342515.6	7520553.5	364.172
342525.6	7520553.5	363.535
342535.6	7520553.5	367.766
342545.6	7520553.5	366.942
342555.6	7520553.5	365.811
342565.6	7520553.5	367.558
342575.6	7520553.5	368.755
342585.6	7520553.5	367.757
342595.6	7520553.5	367.731
342605.6	7520553.5	368.873
342615.6	7520553.5	370.571
342625.6	7520553.5	371.950
342635.6	7520553.5	371.956
342645.6	7520553.5	371.619
342655.6	7520553.5	373.464
342665.6	7520553.5	375.722
342675.6	7520553.5	375.708
342685.6	7520553.5	375.000
342695.6	7520553.5	373.947
342705.6	7520553.5	375.174
342715.6	7520553.5	375.647
342725.6	7520553.5	376.467
342735.6	7520553.5	376.596
342745.6	7520553.5	377.202
342755.6	7520553.5	378.290
342765.6	7520553.5	378.162
342775.6	7520553.5	377.811
342785.6	7520553.5	380.139
342795.6	7520553.5	382.771
342805.6	7520553.5	380.874
342815.6	7520553.5	381.802
342825.6	7520553.5	383.843
342835.6	7520553.5	383.043
342845.6	7520553.5	382.339
342855.6	7520553.5	382.933
342865.6	7520553.5	382.992
342875.6	7520553.5	383.857
342885.6	7520553.5	384.959
342895.6	7520553.5	385.119
342905.6	7520553.5	385.554
342915.6	7520553.5	386.836
342925.6	7520553.5	387.631
342935.6	7520553.5	387.070
342945.6	7520553.5	387.665
342955.6	7520553.5	387.855
341935.6	7520543.5	351.490
341945.6	7520543.5	351.331
341955.6	7520543.5	351.095
341965.6	7520543.5	350.826
341975.6	7520543.5	350.669
341985.6	7520543.5	350.569
341995.6	7520543.5	350.455
342005.6	7520543.5	350.201
342015.6	7520543.5	350.137
342025.6	7520543.5	350.492
342035.6	7520543.5	350.698
342045.6	7520543.5	350.560
342055.6	7520543.5	350.341
342065.6	7520543.5	350.097
342075.6	7520543.5	349.839
342085.6	7520543.5	349.489
342095.6	7520543.5	349.239
342105.6	7520543.5	349.065
342115.6	7520543.5	351.231
342125.6	7520543.5	350.291
342135.6	7520543.5	348.973
342395.6	7520543.5	357.786
342405.6	7520543.5	358.590
342415.6	7520543.5	359.584
342425.6	7520543.5	360.182
342435.6	7520543.5	360.965
342445.6	7520543.5	362.046
342455.6	7520543.5	363.496
342465.6	7520543.5	363.030
342475.6	7520543.5	361.891
342485.6	7520543.5	364.683
342495.6	7520543.5	366.652
342505.6	7520543.5	366.206
342515.6	7520543.5	364.966
342525.6	7520543.5	363.701
342535.6	7520543.5	364.794
342545.6	7520543.5	363.555
342555.6	7520543.5	365.047
342565.6	7520543.5	365.119
342575.6	7520543.5	366.168
342585.6	7520543.5	367.773
342595.6	7520543.5	367.903
342605.6	7520543.5	368.253
342615.6	7520543.5	369.182
342625.6	7520543.5	370.531
342635.6	7520543.5	371.577
342645.6	7520543.5	371.940
342655.6	7520543.5	374.405
342665.6	7520543.5	376.431
342675.6	7520543.5	374.039
342685.6	7520543.5	372.775
342695.6	7520543.5	372.887
342705.6	7520543.5	372.707
342715.6	7520543.5	373.959
342725.6	7520543.5	377.248
342735.6	7520543.5	377.080
342745.6	7520543.5	376.937
342755.6	7520543.5	381.707
342765.6	7520543.5	378.757
342775.6	7520543.5	378.792
342785.6	7520543.5	380.015
342795.6	7520543.5	379.896
342805.6	7520543.5	380.685
342815.6	7520543.5	381.602
342825.6	7520543.5	383.944
342835.6	7520543.5	383.426
342845.6	7520543.5	382.813
342855.6	7520543.5	383.417
342865.6	7520543.5	384.425
342875.6	7520543.5	385.157
342885.6	7520543.5	385.910
342895.6	7520543.5	385.898
342905.6	7520543.5	385.725
342915.6	7520543.5	386.440
342925.6	7520543.5	387.020
342935.6	7520543.5	388.300
342945.6	7520543.5	388.259
342955.6	7520543.5	386.796
342965.6	7520543.5	389.150
342975.6	7520543.5	389.036
342985.6	7520543.5	390.819
342995.6	7520543.5	393.615
341925.6	7520533.5	351.384
341935.6	7520533.5	351.266
341945.6	7520533.5	351.004
341955.6	7520533.5	350.718
341965.6	7520533.5	350.469
341975.6	7520533.5	350.306
341985.6	7520533.5	350.179
341995.6	7520533.5	349.999
342005.6	7520533.5	349.800
342015.6	7520533.5	349.812
342025.6	7520533.5	350.141
342035.6	7520533.5	350.284
342045.6	7520533.5	350.181
342055.6	7520533.5	350.026
342065.6	7520533.5	349.879
342075.6	7520533.5	349.521
342085.6	7520533.5	349.179
342095.6	7520533.5	348.896
342105.6	7520533.5	348.701
342115.6	7520533.5	350.167
342125.6	7520533.5	349.549
342465.6	7520533.5	361.744
342475.6	7520533.5	361.886
342485.6	7520533.5	362.471
342495.6	7520533.5	364.388
342505.6	7520533.5	367.772
342515.6	7520533.5	365.825
342525.6	7520533.5	364.413
342535.6	7520533.5	365.706
342545.6	7520533.5	363.782
342555.6	7520533.5	365.107
342565.6	7520533.5	365.605
342575.6	7520533.5	367.135
342585.6	7520533.5	371.185
342595.6	7520533.5	370.539
342605.6	7520533.5	369.137
342615.6	7520533.5	369.344
342625.6	7520533.5	370.888
342635.6	7520533.5	373.179
342645.6	7520533.5	372.886
342655.6	7520533.5	371.902
342665.6	7520533.5	374.202
342675.6	7520533.5	375.842
342685.6	7520533.5	374.641
342695.6	7520533.5	373.873
342705.6	7520533.5	373.840
342715.6	7520533.5	376.014
342725.6	7520533.5	376.319
342735.6	7520533.5	377.654
342745.6	7520533.5	378.774
342755.6	7520533.5	384.638
342765.6	7520533.5	378.123
342775.6	7520533.5	379.650
342785.6	7520533.5	379.507
342795.6	7520533.5	380.692
342805.6	7520533.5	381.976
342815.6	7520533.5	380.024
342825.6	7520533.5	382.504
342835.6	7520533.5	383.478
342845.6	7520533.5	383.559
342855.6	7520533.5	383.828
342865.6	7520533.5	384.622
342875.6	7520533.5	385.351
342885.6	7520533.5	385.665
342895.6	7520533.5	386.063
342905.6	7520533.5	386.738
342915.6	7520533.5	387.337
342925.6	7520533.5	388.046
342935.6	7520533.5	389.295
342945.6	7520533.5	389.508
342955.6	7520533.5	388.116
342965.6	7520533.5	387.811
342975.6	7520533.5	388.303
342985.6	7520533.5	390.332
342995.6	7520533.5	394.882
343005.6	7520533.5	396.463
343015.6	7520533.5	395.453
343025.6	7520533.5	393.770
343035.6	7520533.5	393.037
343045.6	7520533.5	391.632
343055.6	7520533.5	392.303
341935.6	7520523.5	350.903
341945.6	7520523.5	350.615
341955.6	7520523.5	350.420
341965.6	7520523.5	350.190
341975.6	7520523.5	349.970
341985.6	7520523.5	349.845
341995.6	7520523.5	349.587
342005.6	7520523.5	349.452
342015.6	7520523.5	349.541
342025.6	7520523.5	349.869
342035.6	7520523.5	349.906
342045.6	7520523.5	349.838
342055.6	7520523.5	349.691
342065.6	7520523.5	349.586
342075.6	7520523.5	349.214
342085.6	7520523.5	348.839
342095.6	7520523.5	348.491
342105.6	7520523.5	348.304
342115.6	7520523.5	348.298
342125.6	7520523.5	348.168
342535.6	7520523.5	365.873
342545.6	7520523.5	365.594
342555.6	7520523.5	366.646
342565.6	7520523.5	366.268
342575.6	7520523.5	367.762
342585.6	7520523.5	372.342
342595.6	7520523.5	372.407
342605.6	7520523.5	371.111
342615.6	7520523.5	370.800
342625.6	7520523.5	371.800
342635.6	7520523.5	374.236
342645.6	7520523.5	373.703
342655.6	7520523.5	371.745
342665.6	7520523.5	372.755
342675.6	7520523.5	376.444
342685.6	7520523.5	381.306
342695.6	7520523.5	379.253
342705.6	7520523.5	376.270
342715.6	7520523.5	379.415
342725.6	7520523.5	375.913
342735.6	7520523.5	378.257
342745.6	7520523.5	378.738
342755.6	7520523.5	385.718
342765.6	7520523.5	378.811
342775.6	7520523.5	379.659
342785.6	7520523.5	379.315
342795.6	7520523.5	381.978
342805.6	7520523.5	381.255
342815.6	7520523.5	378.723
342825.6	7520523.5	380.129
342835.6	7520523.5	381.840
342845.6	7520523.5	383.157
342855.6	7520523.5	383.832
342865.6	7520523.5	383.804
342875.6	7520523.5	384.645
342885.6	7520523.5	385.491
342895.6	7520523.5	386.226
342905.6	7520523.5	387.730
342915.6	7520523.5	388.482
342925.6	7520523.5	388.586
342935.6	7520523.5	389.266
342945.6	7520523.5	389.057
342955.6	7520523.5	388.446
342965.6	7520523.5	387.139
342975.6	7520523.5	388.274
342985.6	7520523.5	388.605
342995.6	7520523.5	389.194
343005.6	7520523.5	390.795
343015.6	7520523.5	392.484
343025.6	7520523.5	394.242
343035.6	7520523.5	395.539
343045.6	7520523.5	393.686
343055.6	7520523.5	392.943
343065.6	7520523.5	391.919
343075.6	7520523.5	394.269
343085.6	7520523.5	394.157
343095.6	7520523.5	393.060
341945.6	7520513.5	350.229
341955.6	7520513.5	350.235
341965.6	7520513.5	349.942
341975.6	7520513.5	349.657
341985.6	7520513.5	349.479
341995.6	7520513.5	349.331
342005.6	7520513.5	349.523
342015.6	7520513.5	349.282
342025.6	7520513.5	349.553
342035.6	7520513.5	349.579
342045.6	7520513.5	349.580
342055.6	7520513.5	349.740
342065.6	7520513.5	349.331
342075.6	7520513.5	348.927
342085.6	7520513.5	348.543
342095.6	7520513.5	348.159
342105.6	7520513.5	347.952
342115.6	7520513.5	347.951
342125.6	7520513.5	347.613
342585.6	7520513.5	368.503
342595.6	7520513.5	369.184
342605.6	7520513.5	370.024
342615.6	7520513.5	370.618
342625.6	7520513.5	371.545
342635.6	7520513.5	372.154
342645.6	7520513.5	372.259
342655.6	7520513.5	371.921
342665.6	7520513.5	371.895
342675.6	7520513.5	374.582
342685.6	7520513.5	377.703
342695.6	7520513.5	376.374
342705.6	7520513.5	375.122
342715.6	7520513.5	376.476
342725.6	7520513.5	376.817
342735.6	7520513.5	376.166
342745.6	7520513.5	378.287
342755.6	7520513.5	382.884
342765.6	7520513.5	380.569
342775.6	7520513.5	381.859
342785.6	7520513.5	381.720
342795.6	7520513.5	381.354
342805.6	7520513.5	380.773
342815.6	7520513.5	379.660
342825.6	7520513.5	380.737
342835.6	7520513.5	383.338
342845.6	7520513.5	384.861
342855.6	7520513.5	385.030
342865.6	7520513.5	384.752
342875.6	7520513.5	384.932
342885.6	7520513.5	385.081
342895.6	7520513.5	385.710
342905.6	7520513.5	386.953
342915.6	7520513.5	387.653
342925.6	7520513.5	389.013
342935.6	7520513.5	390.424
342945.6	7520513.5	389.116
342955.6	7520513.5	389.030
342965.6	7520513.5	388.399
342975.6	7520513.5	388.967
342985.6	7520513.5	389.483
342995.6	7520513.5	391.126
343005.6	7520513.5	389.289
343015.6	7520513.5	392.447
343025.6	7520513.5	392.832
343035.6	7520513.5	392.374
343045.6	7520513.5	394.811
343055.6	7520513.5	396.612
343065.6	7520513.5	392.822
343075.6	7520513.5	394.051
343085.6	7520513.5	393.656
343095.6	7520513.5	392.245
343105.6	7520513.5	393.590
343115.6	7520513.5	395.460
343125.6	7520513.5	397.333
343135.6	7520513.5	397.651
343145.6	7520513.5	396.068
341975.6	7520503.5	349.347
341985.6	7520503.5	349.071
341995.6	7520503.5	349.212
342005.6	7520503.5	350.222
342015.6	7520503.5	349.020
342025.6	7520503.5	349.236
342035.6	7520503.5	349.309
342045.6	7520503.5	349.405
342055.6	7520503.5	350.476
342065.6	7520503.5	349.291
342075.6	7520503.5	348.771
342085.6	7520503.5	348.222
342095.6	7520503.5	347.764
342105.6	7520503.5	347.543
342115.6	7520503.5	347.892
342125.6	7520503.5	347.247
342635.6	7520503.5	373.428
342645.6	7520503.5	372.490
342655.6	7520503.5	371.587
342665.6	7520503.5	373.694
342675.6	7520503.5	376.114
342685.6	7520503.5	374.214
342695.6	7520503.5	374.953
342705.6	7520503.5	377.028
342715.6	7520503.5	374.932
342725.6	7520503.5	377.838
342735.6	7520503.5	376.417
342745.6	7520503.5	377.827
342755.6	7520503.5	378.533
342765.6	7520503.5	380.281
342775.6	7520503.5	380.114
342785.6	7520503.5	380.608
342795.6	7520503.5	382.096
342805.6	7520503.5	381.951
342815.6	7520503.5	381.581
342825.6	7520503.5	382.351
342835.6	7520503.5	383.986
342845.6	7520503.5	385.583
342855.6	7520503.5	385.782
342865.6	7520503.5	385.074
342875.6	7520503.5	384.198
342885.6	7520503.5	384.110
342895.6	7520503.5	385.200
342905.6	7520503.5	385.702
342915.6	7520503.5	385.870
342925.6	7520503.5	387.791
342935.6	7520503.5	389.174
342945.6	7520503.5	389.013
342955.6	7520503.5	389.414
342965.6	7520503.5	391.047
342975.6	7520503.5	394.925
342985.6	7520503.5	394.281
342995.6	7520503.5	392.825
343005.6	7520503.5	392.358
343015.6	7520503.5	393.035
343025.6	7520503.5	392.808
343035.6	7520503.5	391.207
343045.6	7520503.5	391.294
343055.6	7520503.5	393.249
343065.6	7520503.5	391.522
343075.6	7520503.5	395.534
343085.6	7520503.5	396.033
343095.6	7520503.5	394.392
343105.6	7520503.5	396.361
343115.6	7520503.5	395.741
343125.6	7520503.5	395.738
343135.6	7520503.5	396.941
343145.6	7520503.5	396.865
343155.6	7520503.5	398.400
343165.6	7520503.5	398.817
343175.6	7520503.5	398.624
343185.6	7520503.5	400.384
343195.6	7520503.5	398.105
343205.6	7520503.5	398.343
342045.6	7520493.5	349.028
342055.6	7520493.5	349.058
342065.6	7520493.5	348.922
342075.6	7520493.5	348.824
342085.6	7520493.5	348.055
342095.6	7520493.5	347.605
342105.6	7520493.5	347.453
342115.6	7520493.5	348.557
342705.6	7520493.5	377.391
342715.6	7520493.5	375.592
342725.6	7520493.5	377.359
342735.6	7520493.5	375.310
342745.6	7520493.5	377.771
342755.6	7520493.5	378.252
342765.6	7520493.5	380.572
342775.6	7520493.5	379.495
342785.6	7520493.5	380.627
342795.6	7520493.5	385.857
342805.6	7520493.5	382.269
342815.6	7520493.5	380.612
342825.6	7520493.5	381.870
342835.6	7520493.5	383.589
342845.6	7520493.5	385.736
342855.6	7520493.5	385.602
342865.6	7520493.5	384.839
342875.6	7520493.5	384.941
342885.6	7520493.5	385.483
342895.6	7520493.5	385.096
342905.6	7520493.5	384.993
342915.6	7520493.5	385.921
342925.6	7520493.5	386.026
342935.6	7520493.5	387.639
342945.6	7520493.5	389.004
342955.6	7520493.5	388.925
342965.6	7520493.5	391.678
342975.6	7520493.5	392.399
342985.6	7520493.5	394.801
342995.6	7520493.5	391.131
343005.6	7520493.5	391.441
343015.6	7520493.5	392.798
343025.6	7520493.5	392.108
343035.6	7520493.5	391.592
343045.6	7520493.5	392.009
343055.6	7520493.5	392.137
343065.6	7520493.5	392.896
343075.6	7520493.5	394.829
343085.6	7520493.5	393.799
343095.6	7520493.5	394.801
343105.6	7520493.5	396.875
343115.6	7520493.5	395.513
343125.6	7520493.5	395.094
343135.6	7520493.5	396.458
343145.6	7520493.5	397.422
343155.6	7520493.5	398.021
343165.6	7520493.5	397.541
343175.6	7520493.5	398.018
343185.6	7520493.5	398.096
343195.6	7520493.5	398.421
343205.6	7520493.5	401.023
343215.6	7520493.5	399.916
343225.6	7520493.5	400.548
343235.6	7520493.5	400.540
342745.6	7520483.5	377.750
342755.6	7520483.5	380.230
342765.6	7520483.5	382.502
342775.6	7520483.5	379.583
342785.6	7520483.5	381.007
342795.6	7520483.5	382.618
342805.6	7520483.5	382.167
342815.6	7520483.5	380.160
342825.6	7520483.5	380.809
342835.6	7520483.5	382.915
342845.6	7520483.5	384.942
342855.6	7520483.5	384.623
342865.6	7520483.5	384.980
342875.6	7520483.5	387.287
342885.6	7520483.5	388.646
342895.6	7520483.5	386.907
342905.6	7520483.5	385.143
342915.6	7520483.5	386.253
342925.6	7520483.5	386.533
342935.6	7520483.5	385.242
342945.6	7520483.5	386.503
342955.6	7520483.5	387.573
342965.6	7520483.5	390.141
342975.6	7520483.5	389.666
342985.6	7520483.5	389.768
342995.6	7520483.5	390.724
343005.6	7520483.5	390.701
343015.6	7520483.5	393.350
343025.6	7520483.5	394.217
343035.6	7520483.5	395.540
343045.6	7520483.5	390.587
343055.6	7520483.5	388.865
343065.6	7520483.5	395.408
343075.6	7520483.5	394.754
343085.6	7520483.5	393.019
343095.6	7520483.5	394.260
343105.6	7520483.5	394.944
343115.6	7520483.5	395.167
343125.6	7520483.5	395.055
343135.6	7520483.5	395.792
343145.6	7520483.5	397.503
343155.6	7520483.5	396.927
343165.6	7520483.5	395.737
343175.6	7520483.5	396.492
343185.6	7520483.5	396.212
343195.6	7520483.5	398.985
343205.6	7520483.5	401.036
343215.6	7520483.5	399.933
343225.6	7520483.5	401.420
343235.6	7520483.5	402.741
343245.6	7520483.5	401.764
343255.6	7520483.5	402.410
343265.6	7520483.5	400.659
343275.6	7520483.5	402.459
343285.6	7520483.5	400.954
343295.6	7520483.5	401.276
342805.6	7520473.5	381.090
342815.6	7520473.5	380.235
342825.6	7520473.5	382.203
342835.6	7520473.5	382.523
342845.6	7520473.5	383.326
342855.6	7520473.5	382.898
342865.6	7520473.5	382.120
342875.6	7520473.5	386.077
342885.6	7520473.5	389.741
342895.6	7520473.5	389.107
342905.6	7520473.5	387.221
342915.6	7520473.5	389.306
342925.6	7520473.5	391.813
342935.6	7520473.5	384.518
342945.6	7520473.5	384.340
342955.6	7520473.5	387.165
342965.6	7520473.5	389.978
342975.6	7520473.5	390.408
342985.6	7520473.5	389.965
342995.6	7520473.5	391.281
343005.6	7520473.5	390.998
343015.6	7520473.5	397.853
343025.6	7520473.5	394.519
343035.6	7520473.5	401.630
343045.6	7520473.5	395.111
343055.6	7520473.5	390.712
343065.6	7520473.5	395.096
343075.6	7520473.5	397.148
343085.6	7520473.5	394.199
343095.6	7520473.5	396.036
343105.6	7520473.5	394.617
343115.6	7520473.5	393.497
343125.6	7520473.5	394.888
343135.6	7520473.5	397.437
343145.6	7520473.5	401.371
343155.6	7520473.5	400.820
343165.6	7520473.5	398.176
343175.6	7520473.5	399.805
343185.6	7520473.5	397.923
343195.6	7520473.5	399.591
343205.6	7520473.5	400.171
343215.6	7520473.5	402.482
343225.6	7520473.5	409.059
343235.6	7520473.5	406.547
343245.6	7520473.5	400.385
343255.6	7520473.5	400.455
343265.6	7520473.5	401.939
343275.6	7520473.5	402.545
343285.6	7520473.5	401.705
343295.6	7520473.5	400.858
343305.6	7520473.5	403.590
343315.6	7520473.5	403.448
343325.6	7520473.5	402.200
343335.6	7520473.5	403.747
342855.6	7520463.5	383.137
342865.6	7520463.5	381.511
342875.6	7520463.5	382.693
342885.6	7520463.5	386.213
342895.6	7520463.5	388.134
342905.6	7520463.5	387.723
342915.6	7520463.5	387.409
342925.6	7520463.5	386.622
342935.6	7520463.5	384.763
342945.6	7520463.5	385.844
342955.6	7520463.5	387.053
342965.6	7520463.5	389.413
342975.6	7520463.5	389.586
342985.6	7520463.5	389.842
342995.6	7520463.5	392.086
343005.6	7520463.5	390.643
343015.6	7520463.5	391.237
343025.6	7520463.5	390.988
343035.6	7520463.5	392.623
343045.6	7520463.5	392.414
343055.6	7520463.5	390.820
343065.6	7520463.5	391.275
343075.6	7520463.5	393.161
343085.6	7520463.5	393.665
343095.6	7520463.5	395.594
343105.6	7520463.5	395.243
343115.6	7520463.5	394.829
343125.6	7520463.5	396.357
343135.6	7520463.5	397.449
343145.6	7520463.5	400.671
343155.6	7520463.5	401.934
343165.6	7520463.5	396.061
343175.6	7520463.5	394.211
343185.6	7520463.5	396.306
343195.6	7520463.5	397.708
343205.6	7520463.5	399.069
343215.6	7520463.5	399.805
343225.6	7520463.5	403.853
343235.6	7520463.5	407.491
343245.6	7520463.5	409.322
343255.6	7520463.5	401.068
343265.6	7520463.5	401.985
343275.6	7520463.5	404.676
343285.6	7520463.5	404.309
343295.6	7520463.5	403.456
343305.6	7520463.5	403.379
343315.6	7520463.5	401.118
343325.6	7520463.5	401.672
343335.6	7520463.5	403.299
343345.6	7520463.5	403.820
343355.6	7520463.5	403.760
343365.6	7520463.5	403.869
343375.6	7520463.5	405.466
343385.6	7520463.5	407.466
342855.6	7520453.5	381.247
342865.6	7520453.5	381.105
342875.6	7520453.5	382.457
342885.6	7520453.5	384.223
342895.6	7520453.5	385.257
342905.6	7520453.5	385.690
342915.6	7520453.5	385.294
342925.6	7520453.5	385.107
342935.6	7520453.5	384.851
342945.6	7520453.5	384.395
342955.6	7520453.5	385.540
342965.6	7520453.5	387.891
342975.6	7520453.5	389.865
342985.6	7520453.5	389.419
342995.6	7520453.5	390.567
343005.6	7520453.5	389.294
343015.6	7520453.5	392.074
343025.6	7520453.5	393.051
343035.6	7520453.5	393.410
343045.6	7520453.5	392.902
343055.6	7520453.5	392.069
343065.6	7520453.5	391.792
343075.6	7520453.5	392.043
343085.6	7520453.5	393.296
343095.6	7520453.5	393.978
343105.6	7520453.5	394.182
343115.6	7520453.5	395.396
343125.6	7520453.5	396.599
343135.6	7520453.5	395.817
343145.6	7520453.5	396.225
343155.6	7520453.5	399.131
343165.6	7520453.5	398.093
343175.6	7520453.5	395.678
343185.6	7520453.5	399.773
343195.6	7520453.5	399.587
343205.6	7520453.5	399.630
343215.6	7520453.5	399.073
343225.6	7520453.5	398.646
343235.6	7520453.5	404.646
343245.6	7520453.5	402.786
343255.6	7520453.5	402.893
343265.6	7520453.5	401.934
343275.6	7520453.5	402.143
343285.6	7520453.5	404.709
343295.6	7520453.5	403.355
343305.6	7520453.5	403.010
343315.6	7520453.5	402.079
343325.6	7520453.5	402.702
343335.6	7520453.5	402.779
343345.6	7520453.5	403.136
343355.6	7520453.5	402.886
343365.6	7520453.5	403.061
343375.6	7520453.5	404.275
343385.6	7520453.5	406.030
342905.6	7520443.5	386.032
342915.6	7520443.5	386.621
342925.6	7520443.5	386.588
342935.6	7520443.5	385.120
342945.6	7520443.5	383.517
342955.6	7520443.5	385.778
342965.6	7520443.5	393.375
342975.6	7520443.5	391.888
342985.6	7520443.5	391.238
342995.6	7520443.5	392.191
343005.6	7520443.5	390.619
343015.6	7520443.5	392.090
343025.6	7520443.5	393.322
343035.6	7520443.5	391.342
343045.6	7520443.5	392.043
343055.6	7520443.5	392.896
343065.6	7520443.5	392.742
343075.6	7520443.5	392.809
343085.6	7520443.5	393.828
343095.6	7520443.5	394.192
343105.6	7520443.5	393.919
343115.6	7520443.5	395.794
343125.6	7520443.5	396.188
343135.6	7520443.5	395.265
343145.6	7520443.5	396.936
343155.6	7520443.5	398.229
343165.6	7520443.5	397.590
343175.6	7520443.5	398.188
343185.6	7520443.5	398.652
343195.6	7520443.5	398.293
343205.6	7520443.5	398.644
343215.6	7520443.5	401.971
343225.6	7520443.5	399.020
343235.6	7520443.5	401.210
343245.6	7520443.5	401.963
343255.6	7520443.5	399.901
343265.6	7520443.5	400.117
343275.6	7520443.5	401.197
343285.6	7520443.5	401.834
343295.6	7520443.5	403.209
343305.6	7520443.5	405.968
343315.6	7520443.5	404.320
343325.6	7520443.5	403.653
343335.6	7520443.5	404.538
343345.6	7520443.5	405.839
343355.6	7520443.5	404.134
343365.6	7520443.5	402.423
343375.6	7520443.5	403.388
343385.6	7520443.5	404.991
343395.6	7520443.5	405.107
343405.6	7520443.5	404.684
343415.6	7520443.5	406.669
343425.6	7520443.5	410.176
342955.6	7520433.5	384.560
342965.6	7520433.5	387.841
342975.6	7520433.5	390.095
342985.6	7520433.5	391.157
342995.6	7520433.5	391.123
343005.6	7520433.5	389.798
343015.6	7520433.5	390.191
343025.6	7520433.5	396.523
343035.6	7520433.5	391.650
343045.6	7520433.5	391.110
343055.6	7520433.5	393.701
343065.6	7520433.5	394.919
343075.6	7520433.5	393.661
343085.6	7520433.5	392.207
343095.6	7520433.5	393.308
343105.6	7520433.5	394.132
343115.6	7520433.5	393.708
343125.6	7520433.5	392.594
343135.6	7520433.5	392.803
343145.6	7520433.5	395.005
343155.6	7520433.5	396.448
343165.6	7520433.5	396.794
343175.6	7520433.5	397.241
343185.6	7520433.5	396.795
343195.6	7520433.5	397.219
343205.6	7520433.5	398.198
343215.6	7520433.5	404.076
343225.6	7520433.5	401.964
343235.6	7520433.5	399.554
343245.6	7520433.5	400.551
343255.6	7520433.5	400.737
343265.6	7520433.5	401.371
343275.6	7520433.5	400.971
343285.6	7520433.5	401.130
343295.6	7520433.5	401.609
343305.6	7520433.5	403.174
343315.6	7520433.5	402.916
343325.6	7520433.5	403.717
343335.6	7520433.5	404.871
343345.6	7520433.5	404.807
343355.6	7520433.5	403.115
343365.6	7520433.5	401.895
343375.6	7520433.5	403.241
343385.6	7520433.5	404.753
343395.6	7520433.5	404.785
343405.6	7520433.5	404.909
343415.6	7520433.5	406.240
343425.6	7520433.5	409.460
343435.6	7520433.5	408.860
343445.6	7520433.5	403.725
343455.6	7520433.5	405.041
343465.6	7520433.5	405.446
343475.6	7520433.5	406.020
343045.6	7520423.5	391.689
343055.6	7520423.5	392.385
343065.6	7520423.5	392.962
343075.6	7520423.5	393.133
343085.6	7520423.5	392.696
343095.6	7520423.5	394.267
343105.6	7520423.5	395.027
343115.6	7520423.5	394.362
343125.6	7520423.5	393.116
343135.6	7520423.5	394.729
343145.6	7520423.5	397.609
343155.6	7520423.5	398.049
343165.6	7520423.5	397.887
343175.6	7520423.5	396.333
343185.6	7520423.5	395.355
343195.6	7520423.5	396.484
343205.6	7520423.5	399.419
343215.6	7520423.5	403.864
343225.6	7520423.5	402.556
343235.6	7520423.5	399.085
343245.6	7520423.5	400.320
343255.6	7520423.5	401.672
343265.6	7520423.5	404.124
343275.6	7520423.5	402.586
343285.6	7520423.5	401.985
343295.6	7520423.5	401.348
343305.6	7520423.5	403.426
343315.6	7520423.5	403.324
343325.6	7520423.5	406.664
343335.6	7520423.5	406.085
343345.6	7520423.5	404.292
343355.6	7520423.5	403.064
343365.6	7520423.5	402.439
343375.6	7520423.5	404.254
343385.6	7520423.5	405.636
343395.6	7520423.5	404.380
343405.6	7520423.5	403.313
343415.6	7520423.5	403.708
343425.6	7520423.5	405.296
343435.6	7520423.5	405.373
343445.6	7520423.5	404.517
343455.6	7520423.5	404.338
343465.6	7520423.5	404.564
343475.6	7520423.5	405.759
343485.6	7520423.5	407.339
343495.6	7520423.5	407.872
343505.6	7520423.5	407.771
343515.6	7520423.5	409.380
343525.6	7520423.5	409.151
343535.6	7520423.5	410.115
343545.6	7520423.5	411.299
343105.6	7520413.5	394.666
343115.6	7520413.5	395.082
343125.6	7520413.5	394.220
343135.6	7520413.5	394.858
343145.6	7520413.5	396.546
343155.6	7520413.5	396.346
343165.6	7520413.5	396.275
343175.6	7520413.5	395.718
343185.6	7520413.5	396.856
343195.6	7520413.5	397.795
343205.6	7520413.5	398.936
343215.6	7520413.5	400.456
343225.6	7520413.5	398.952
343235.6	7520413.5	399.619
343245.6	7520413.5	399.585
343255.6	7520413.5	401.424
343265.6	7520413.5	400.774
343275.6	7520413.5	401.385
343285.6	7520413.5	402.760
343295.6	7520413.5	404.454
343305.6	7520413.5	406.002
343315.6	7520413.5	405.407
343325.6	7520413.5	412.634
343335.6	7520413.5	411.772
343345.6	7520413.5	406.512
343355.6	7520413.5	404.175
343365.6	7520413.5	405.329
343375.6	7520413.5	405.097
343385.6	7520413.5	403.768
343395.6	7520413.5	409.120
343405.6	7520413.5	414.381
343415.6	7520413.5	408.953
343425.6	7520413.5	404.780
343435.6	7520413.5	404.285
343445.6	7520413.5	404.537
343455.6	7520413.5	404.767
343465.6	7520413.5	407.066
343475.6	7520413.5	407.473
343485.6	7520413.5	408.006
343495.6	7520413.5	406.846
343505.6	7520413.5	407.379
343515.6	7520413.5	408.589
343525.6	7520413.5	407.801
343535.6	7520413.5	408.106
343545.6	7520413.5	408.757
343555.6	7520413.5	409.473
343565.6	7520413.5	410.932
343575.6	7520413.5	410.568
343585.6	7520413.5	409.221
343135.6	7520403.5	394.549
343145.6	7520403.5	394.780
343155.6	7520403.5	395.188
343165.6	7520403.5	396.149
343175.6	7520403.5	395.549
343185.6	7520403.5	396.796
343195.6	7520403.5	397.764
343205.6	7520403.5	399.726
343215.6	7520403.5	399.591
343225.6	7520403.5	396.898
343235.6	7520403.5	399.523
343245.6	7520403.5	398.932
343255.6	7520403.5	399.896
343265.6	7520403.5	399.195
343275.6	7520403.5	400.459
343285.6	7520403.5	400.248
343295.6	7520403.5	401.228
343305.6	7520403.5	404.522
343315.6	7520403.5	405.273
343325.6	7520403.5	409.536
343335.6	7520403.5	407.381
343345.6	7520403.5	404.185
343355.6	7520403.5	404.330
343365.6	7520403.5	404.594
343375.6	7520403.5	403.236
343385.6	7520403.5	401.881
343395.6	7520403.5	404.482
343405.6	7520403.5	408.515
343415.6	7520403.5	407.049
343425.6	7520403.5	404.143
343435.6	7520403.5	403.168
343445.6	7520403.5	405.183
343455.6	7520403.5	406.212
343465.6	7520403.5	407.530
343475.6	7520403.5	407.103
343485.6	7520403.5	407.097
343495.6	7520403.5	407.333
343505.6	7520403.5	408.246
343515.6	7520403.5	408.834
343525.6	7520403.5	408.391
343535.6	7520403.5	406.987
343545.6	7520403.5	407.576
343555.6	7520403.5	408.814
343565.6	7520403.5	410.535
343575.6	7520403.5	411.997
343585.6	7520403.5	411.365
343595.6	7520403.5	411.046
343605.6	7520403.5	411.407
343615.6	7520403.5	410.479
343625.6	7520403.5	409.905
343635.6	7520403.5	411.025
343175.6	7520393.5	395.258
343185.6	7520393.5	397.203
343195.6	7520393.5	398.209
343205.6	7520393.5	401.034
343215.6	7520393.5	401.041
343225.6	7520393.5	396.937
343235.6	7520393.5	398.328
343245.6	7520393.5	397.749
343255.6	7520393.5	408.266
343265.6	7520393.5	400.333
343275.6	7520393.5	402.438
343285.6	7520393.5	399.463
343295.6	7520393.5	400.307
343305.6	7520393.5	402.854
343315.6	7520393.5	406.418
343325.6	7520393.5	410.028
343335.6	7520393.5	410.706
343345.6	7520393.5	407.253
343355.6	7520393.5	405.016
343365.6	7520393.5	404.475
343375.6	7520393.5	404.851
343385.6	7520393.5	403.473
343395.6	7520393.5	401.371
343405.6	7520393.5	403.090
343415.6	7520393.5	404.303
343425.6	7520393.5	403.365
343435.6	7520393.5	403.801
343445.6	7520393.5	405.995
343455.6	7520393.5	405.859
343465.6	7520393.5	406.960
343475.6	7520393.5	407.257
343485.6	7520393.5	406.318
343495.6	7520393.5	407.269
343505.6	7520393.5	407.985
343515.6	7520393.5	407.984
343525.6	7520393.5	407.705
343535.6	7520393.5	407.085
343545.6	7520393.5	407.883
343555.6	7520393.5	408.615
343565.6	7520393.5	410.693
343575.6	7520393.5	413.254
343585.6	7520393.5	412.510
343595.6	7520393.5	411.823
343605.6	7520393.5	412.353
343615.6	7520393.5	412.372
343625.6	7520393.5	411.761
343635.6	7520393.5	411.284
343645.6	7520393.5	412.038
343655.6	7520393.5	413.844
343665.6	7520393.5	414.254
343675.6	7520393.5	413.410
343225.6	7520383.5	394.801
343235.6	7520383.5	396.875
343245.6	7520383.5	397.752
343255.6	7520383.5	406.101
343265.6	7520383.5	400.862
343275.6	7520383.5	401.088
343285.6	7520383.5	400.290
343295.6	7520383.5	401.238
343305.6	7520383.5	402.298
343315.6	7520383.5	402.857
343325.6	7520383.5	406.540
343335.6	7520383.5	408.078
343345.6	7520383.5	406.713
343355.6	7520383.5	405.699
343365.6	7520383.5	405.078
343375.6	7520383.5	405.329
343385.6	7520383.5	404.727
343395.6	7520383.5	403.660
343405.6	7520383.5	406.081
343415.6	7520383.5	407.021
343425.6	7520383.5	403.401
343435.6	7520383.5	404.151
343445.6	7520383.5	405.433
343455.6	7520383.5	405.066
343465.6	7520383.5	406.760
343475.6	7520383.5	407.055
343485.6	7520383.5	405.712
343495.6	7520383.5	407.500
343505.6	7520383.5	408.824
343515.6	7520383.5	410.034
343525.6	7520383.5	407.385
343535.6	7520383.5	408.785
343545.6	7520383.5	409.760
343555.6	7520383.5	410.143
343565.6	7520383.5	410.887
343575.6	7520383.5	412.471
343585.6	7520383.5	411.936
343595.6	7520383.5	410.890
343605.6	7520383.5	410.946
343615.6	7520383.5	411.639
343625.6	7520383.5	412.328
343635.6	7520383.5	411.949
343645.6	7520383.5	411.802
343655.6	7520383.5	413.602
343665.6	7520383.5	414.525
343675.6	7520383.5	414.023
343685.6	7520383.5	414.042
343695.6	7520383.5	415.304
343705.6	7520383.5	415.010
343715.6	7520383.5	412.956
343725.6	7520383.5	414.892
343735.6	7520383.5	416.640
343745.6	7520383.5	415.754
343295.6	7520373.5	401.404
343305.6	7520373.5	401.603
343315.6	7520373.5	401.972
343325.6	7520373.5	404.227
343335.6	7520373.5	405.582
343345.6	7520373.5	406.301
343355.6	7520373.5	405.662
343365.6	7520373.5	404.737
343375.6	7520373.5	406.039
343385.6	7520373.5	406.544
343395.6	7520373.5	404.862
343405.6	7520373.5	405.182
343415.6	7520373.5	405.865
343425.6	7520373.5	404.000
343435.6	7520373.5	403.708
343445.6	7520373.5	403.968
343455.6	7520373.5	405.424
343465.6	7520373.5	406.760
343475.6	7520373.5	408.335
343485.6	7520373.5	407.246
343495.6	7520373.5	410.029
343505.6	7520373.5	410.118
343515.6	7520373.5	410.879
343525.6	7520373.5	408.411
343535.6	7520373.5	408.724
343545.6	7520373.5	410.956
343555.6	7520373.5	410.741
343565.6	7520373.5	410.017
343575.6	7520373.5	410.260
343585.6	7520373.5	410.582
343595.6	7520373.5	411.031
343605.6	7520373.5	411.766
343615.6	7520373.5	412.593
343625.6	7520373.5	412.798
343635.6	7520373.5	411.878
343645.6	7520373.5	411.289
343655.6	7520373.5	412.671
343665.6	7520373.5	414.697
343675.6	7520373.5	415.194
343685.6	7520373.5	414.461
343695.6	7520373.5	414.616
343705.6	7520373.5	415.740
343715.6	7520373.5	414.929
343725.6	7520373.5	415.903
343735.6	7520373.5	417.488
343745.6	7520373.5	417.336
343755.6	7520373.5	416.647
343345.6	7520363.5	404.493
343355.6	7520363.5	404.401
343365.6	7520363.5	403.783
343375.6	7520363.5	405.299
343385.6	7520363.5	405.694
343395.6	7520363.5	404.239
343405.6	7520363.5	404.295
343415.6	7520363.5	404.752
343425.6	7520363.5	404.913
343435.6	7520363.5	404.284
343445.6	7520363.5	403.895
343455.6	7520363.5	405.363
343465.6	7520363.5	407.381
343475.6	7520363.5	410.144
343485.6	7520363.5	407.757
343495.6	7520363.5	409.420
343505.6	7520363.5	409.832
343515.6	7520363.5	410.071
343525.6	7520363.5	409.192
343535.6	7520363.5	407.506
343545.6	7520363.5	409.518
343555.6	7520363.5	409.804
343565.6	7520363.5	409.342
343575.6	7520363.5	410.056
343585.6	7520363.5	410.932
343595.6	7520363.5	411.487
343605.6	7520363.5	411.846
343615.6	7520363.5	413.230
343625.6	7520363.5	413.620
343635.6	7520363.5	411.838
343645.6	7520363.5	411.251
343655.6	7520363.5	413.122
343665.6	7520363.5	415.176
343675.6	7520363.5	415.099
343685.6	7520363.5	414.380
343695.6	7520363.5	414.686
343705.6	7520363.5	414.790
343715.6	7520363.5	415.294
343725.6	7520363.5	415.567
343735.6	7520363.5	416.832
343745.6	7520363.5	418.183
343755.6	7520363.5	416.843
343765.6	7520363.5	415.729
343435.6	7520353.5	404.132
343445.6	7520353.5	404.125
343455.6	7520353.5	405.406
343465.6	7520353.5	407.875
343475.6	7520353.5	409.848
343485.6	7520353.5	409.425
343495.6	7520353.5	408.282
343505.6	7520353.5	409.603
343515.6	7520353.5	409.113
343525.6	7520353.5	409.709
343535.6	7520353.5	408.549
343545.6	7520353.5	409.076
343555.6	7520353.5	409.351
343565.6	7520353.5	409.058
343575.6	7520353.5	410.187
343585.6	7520353.5	411.056
343595.6	7520353.5	411.022
343605.6	7520353.5	412.175
343615.6	7520353.5	413.621
343625.6	7520353.5	413.035
343635.6	7520353.5	411.050
343645.6	7520353.5	410.729
343655.6	7520353.5	412.887
343665.6	7520353.5	414.169
343675.6	7520353.5	413.922
343685.6	7520353.5	414.960
343695.6	7520353.5	416.766
343705.6	7520353.5	415.205
343715.6	7520353.5	416.168
343725.6	7520353.5	415.539
343735.6	7520353.5	415.511
343745.6	7520353.5	417.689
343755.6	7520353.5	418.310
343505.6	7520343.5	408.829
343515.6	7520343.5	408.764
343525.6	7520343.5	409.298
343535.6	7520343.5	409.496
343545.6	7520343.5	408.758
343555.6	7520343.5	409.410
343565.6	7520343.5	409.201
343575.6	7520343.5	409.676
343585.6	7520343.5	409.712
343595.6	7520343.5	410.045
343605.6	7520343.5	411.695
343615.6	7520343.5	412.251
343625.6	7520343.5	411.787
343635.6	7520343.5	411.335
343645.6	7520343.5	411.594
343655.6	7520343.5	413.372
343665.6	7520343.5	414.183
343675.6	7520343.5	415.144
343685.6	7520343.5	416.100
343695.6	7520343.5	416.301
343705.6	7520343.5	415.625
343715.6	7520343.5	417.272
343725.6	7520343.5	416.297
343735.6	7520343.5	416.167
343745.6	7520343.5	416.670
343545.6	7520333.5	408.386
